# .PCD v0.7 - Point Cloud Data file format
VERSION 0.7
FIELDS x y z intensity
SIZE 4 4 4 4
TYPE F F F F
COUNT 1 1 1 1
WIDTH 1000
HEIGHT 1
VIEWPOINT 0 0 0 1 0 0 0
POINTS 1000
DATA ascii
-0.797545 2.3359 -0.820731 0.5
-4.93682 4.36311 -0.456553 0.5
1.61501 0.961677 -1.70212 0.5
3.11356 2.35313 2.39963 0.5
0.136225 -0.948073 2.66606 0.5
-2.14371 -0.742616 2.17917 0.5
1.50988 2.81371 0.205989 0.5
3.03313 4.1087 0.379358 0.5
-3.29848 0.207625 0.917546 0.5
1.73316 -1.40937 -1.64021 0.5
0.0203736 2.35523 -1.33338 0.5
2.96898 1.20376 1.24455 0.5
-3.47122 -4.39939 -0.246342 0.5
-4.71009 -4.91904 0.357851 0.5
-1.10867 1.26088 2.97468 0.5
-2.99764 -3.95282 1.67834 0.5
4.57816 0.913034 -0.512958 0.5
3.57046 -3.48525 0.5294 0.5
1.84287 3.81466 -1.11215 0.5
2.68145 1.88594 1.15416 0.5
1.21049 4.37862 1.44898 0.5
1.77408 3.46421 0.474575 0.5
3.89478 -2.85324 0.992736 0.5
1.12255 -1.80125 1.23053 0.5
-0.272512 2.28645 0.212395 0.5
4.52384 -0.141655 -0.527371 0.5
-1.07162 0.343663 0.144296 0.5
2.10028 -2.52392 2.99161 0.5
2.05411 3.4237 1.92959 0.5
-0.607144 -4.92049 -1.87268 0.5
4.64515 4.85999 2.97429 0.5
0.321666 3.58463 1.77074 0.5
-3.01862 1.04967 -1.09671 0.5
0.950083 4.18186 -0.452528 0.5
-2.17385 -1.07308 1.99532 0.5
3.36928 2.63923 2.49365 0.5
0.238376 -2.85022 0.73524 0.5
2.8072 -2.75801 -1.50453 0.5
-4.87327 -4.98996 2.18459 0.5
-2.73528 -4.7764 1.46233 0.5
4.6816 -4.47708 1.74887 0.5
-1.73505 -2.27483 0.822381 0.5
-4.68794 3.03691 1.13376 0.5
-2.1952 4.26298 1.42135 0.5
2.55999 4.4884 -1.83746 0.5
1.69787 -3.2605 2.6811 0.5
4.04948 -0.0431842 -0.938986 0.5
3.08283 3.8014 -1.14737 0.5
3.49629 3.8419 -1.3766 0.5
-0.994968 3.90306 0.638938 0.5
-4.03727 -3.66797 1.877 0.5
0.917274 2.86843 -1.32332 0.5
-3.27122 1.71615 -1.76434 0.5
0.986887 0.711623 0.110568 0.5
2.69769 -1.029 1.45912 0.5
-3.48316 1.559 0.158883 0.5
0.0051594 -2.01674 1.02349 0.5
-3.91656 -1.15321 1.00506 0.5
-3.54593 -0.152799 -1.63016 0.5
-1.4613 2.10124 -1.27925 0.5
0.345834 -2.94587 0.813826 0.5
-0.82798 -3.9785 -0.0961576 0.5
-0.495623 -1.72731 -1.31232 0.5
1.25208 3.19121 0.0428704 0.5
-3.79095 -1.2015 -1.4286 0.5
-4.0995 0.44722 -1.22476 0.5
-1.53323 -0.427492 -1.43996 0.5
2.66661 4.97468 -1.96369 0.5
-0.32528 2.17267 1.47005 0.5
3.49448 3.14914 -0.382584 0.5
2.25985 -2.4576 1.98012 0.5
0.419427 0.807256 -0.214306 0.5
-2.35582 2.3095 -0.777857 0.5
-2.25077 -3.26365 -0.511546 0.5
0.371224 2.75713 2.68254 0.5
0.86542 0.528815 -1.7743 0.5
0.129459 0.540455 2.46606 0.5
-2.21534 2.59713 -0.301943 0.5
3.52915 3.86197 1.89739 0.5
1.27992 -3.30182 0.580005 0.5
-2.66095 -3.98052 -1.07553 0.5
-1.01292 -0.399353 2.19815 0.5
4.04635 1.77263 1.24596 0.5
-2.51921 -3.76572 0.318795 0.5
-0.321521 -0.555705 -1.27824 0.5
-1.12936 -2.49421 1.21686 0.5
3.77139 0.27983 1.36855 0.5
3.1833 3.98682 -0.811259 0.5
-4.99067 4.31043 -1.54526 0.5
0.427823 0.224441 -0.00768569 0.5
-1.41676 -3.63178 1.26299 0.5
-2.25407 -1.34679 2.41542 0.5
0.72247 1.7296 1.03048 0.5
1.63283 1.05678 2.74598 0.5
1.16965 3.73906 0.40995 0.5
4.54789 -3.89728 -1.14913 0.5
1.51391 -4.24261 0.370214 0.5
2.41294 1.90666 -0.701171 0.5
4.72885 -0.326285 -0.189169 0.5
0.770916 -1.94314 2.206 0.5
-1.51516 1.4896 -0.719118 0.5
4.4424 -4.09599 2.16297 0.5
-3.8205 0.596084 0.378418 0.5
-0.872392 2.25715 1.8131 0.5
4.21499 -0.924389 2.86095 0.5
2.78073 2.23307 1.58175 0.5
2.88387 1.75603 -1.07216 0.5
-2.06841 -2.96511 -1.43947 0.5
-2.09343 0.222874 -1.98345 0.5
4.02208 -3.4073 -0.0447928 0.5
2.5194 -1.66144 2.36531 0.5
0.110031 0.698332 -1.39892 0.5
-3.19686 -3.33396 -0.487522 0.5
-0.403015 0.941604 2.15344 0.5
-1.60108 -3.31692 -1.4766 0.5
0.924877 -0.284844 2.33198 0.5
1.36484 2.51235 -1.25423 0.5
4.20257 -0.656931 1.86956 0.5
-4.82847 -1.59323 1.65287 0.5
-1.86507 -0.810306 2.16803 0.5
-3.65569 3.47558 -0.879431 0.5
2.61264 -0.44887 2.86725 0.5
-1.44185 1.68434 -0.598683 0.5
1.86477 -4.04451 2.10259 0.5
0.456052 0.337521 0.278286 0.5
-3.56666 3.04854 1.78923 0.5
1.27375 1.43071 -0.898661 0.5
2.71669 -3.83621 2.3745 0.5
0.552139 -2.33481 -1.2682 0.5
3.27449 -2.15814 -0.595286 0.5
-1.7993 -0.853165 1.44656 0.5
0.855771 0.325439 2.39966 0.5
1.72747 -0.74052 2.16716 0.5
-0.518156 0.616904 0.825352 0.5
0.233777 -4.21259 0.473465 0.5
-4.8101 3.358 2.59764 0.5
1.12424 -3.23793 2.10306 0.5
-3.30019 -2.0981 -0.305803 0.5
1.7478 2.91952 1.34528 0.5
4.15713 1.30987 1.87562 0.5
-2.22669 4.8394 0.206592 0.5
-1.71754 -4.14468 0.957741 0.5
-2.38838 3.14132 -1.69454 0.5
3.58017 -4.2439 -0.553163 0.5
-0.193034 1.98429 -1.37526 0.5
4.09138 0.038129 -1.11671 0.5
3.1789 3.04998 0.329523 0.5
-4.18709 -3.84116 -1.2364 0.5
-3.8873 -1.16356 2.35051 0.5
1.49726 -1.774 0.0206524 0.5
1.59803 -1.16493 -0.58492 0.5
4.40404 -3.92601 0.0431191 0.5
3.81002 -4.08214 2.64457 0.5
-3.75618 4.89485 -1.19606 0.5
3.98962 -3.03347 2.9377 0.5
1.46107 4.60576 -0.501789 0.5
-0.748137 -4.6113 -1.74426 0.5
-0.140607 3.69949 -1.32741 0.5
1.63401 -3.16506 0.927395 0.5
3.54228 -0.0180671 -1.80841 0.5
-1.54502 1.95728 -0.889011 0.5
2.88574 0.838573 2.07681 0.5
-4.60283 -0.766669 -0.629914 0.5
-2.24679 3.90203 -1.42512 0.5
4.5815 4.83063 1.85385 0.5
4.44783 4.15144 0.231781 0.5
4.81021 1.86916 -1.48869 0.5
-3.69521 1.45087 1.78313 0.5
0.0815134 1.95206 -1.70258 0.5
1.14265 0.753841 1.27733 0.5
4.75232 -0.0738679 0.893558 0.5
0.348741 3.89341 0.102026 0.5
4.37322 1.02188 2.27304 0.5
-1.50456 -4.64505 -0.925475 0.5
2.9234 3.99697 -1.31248 0.5
-4.18985 -3.958 1.35826 0.5
-4.60353 3.27534 -0.0327533 0.5
-2.35969 0.855332 0.415427 0.5
-1.51749 -4.86494 0.536259 0.5
-0.0854158 3.24351 0.240968 0.5
-3.4476 -0.703175 -1.59548 0.5
-0.0418093 4.32213 -0.217634 0.5
1.5328 2.09956 -0.8791 0.5
3.85787 0.112739 2.31415 0.5
3.92563 -1.30422 0.944705 0.5
2.92137 0.0163706 -1.44678 0.5
-1.31523 2.08406 2.77134 0.5
4.38351 -4.63402 2.86387 0.5
-2.0636 -0.044119 1.86311 0.5
4.79791 -1.69492 2.78993 0.5
-0.616291 -0.719119 1.37458 0.5
-3.52331 -0.443207 -1.01364 0.5
0.552517 -4.44748 -1.2932 0.5
4.19236 4.62018 -0.953747 0.5
2.18536 1.1881 -1.60877 0.5
0.563559 4.1286 2.18317 0.5
4.34982 3.23142 -0.396955 0.5
2.07464 -0.727482 0.261824 0.5
-0.0919214 -3.11444 1.61222 0.5
-1.27741 -0.0559603 -0.0354 0.5
-1.86169 -1.55468 0.466831 0.5
-0.408095 -1.71057 1.12584 0.5
-1.54417 -2.29777 -0.970374 0.5
1.4432 -4.27112 -0.558087 0.5
-0.362805 4.12485 -1.64013 0.5
-1.80861 -3.75988 0.18226 0.5
-0.599875 -2.38322 1.04723 0.5
-0.921485 0.195468 -1.56817 0.5
-1.89521 -2.53155 1.05193 0.5
-1.41322 -4.89039 -1.09476 0.5
2.60745 2.38355 0.833765 0.5
-3.75107 0.59869 -0.144471 0.5
-4.50583 1.27024 0.013432 0.5
-2.25466 -3.08622 1.30923 0.5
4.12543 2.86428 -1.39204 0.5
-4.05716 -3.12041 0.872223 0.5
-0.833442 -1.87194 -1.53156 0.5
0.70453 -0.284126 0.693637 0.5
-3.59608 1.26127 0.570032 0.5
3.15887 -3.82731 1.60996 0.5
-2.06257 3.73983 1.7893 0.5
-2.41239 -3.48281 2.16493 0.5
-4.85078 1.50172 -1.25373 0.5
1.77395 -0.556094 -0.667927 0.5
4.62819 -4.1199 2.12967 0.5
-2.10083 -1.41979 1.09556 0.5
3.89592 3.57099 0.690722 0.5
0.357884 1.84179 1.49458 0.5
-2.05571 1.42281 2.83074 0.5
0.5143 -1.33474 1.03956 0.5
4.44914 -4.17537 -0.0802518 0.5
-0.525104 -2.29018 -1.82902 0.5
1.37169 2.58623 0.145927 0.5
1.93699 2.10103 0.867701 0.5
2.43421 1.7338 0.850074 0.5
1.04401 -4.52678 -1.07624 0.5
4.10814 -4.70722 0.373162 0.5
3.46889 2.71353 -1.82781 0.5
-0.547896 -0.754551 2.81915 0.5
-0.0737538 -3.80311 2.67547 0.5
2.26094 -0.704312 2.42851 0.5
0.360389 1.67886 -1.11283 0.5
4.68547 -4.28875 0.241488 0.5
-1.11632 -4.54113 -1.72137 0.5
-0.166228 -0.720053 1.20753 0.5
-2.73702 -4.96918 -1.379 0.5
2.0608 0.801762 1.87557 0.5
0.389981 0.592044 1.19707 0.5
-0.55857 2.60804 2.61615 0.5
-1.40749 1.63926 0.972854 0.5
3.42722 -4.72568 -0.819651 0.5
0.525896 1.34756 2.07686 0.5
-3.07009 0.158711 -0.602955 0.5
-4.65148 -3.1514 1.84825 0.5
0.05053 -0.0654196 0.637854 0.5
1.19244 -3.41813 2.2831 0.5
1.27312 4.07942 0.908656 0.5
-2.83601 -0.586497 2.5788 0.5
0.012169 -2.70878 -1.18535 0.5
4.37266 -3.58362 0.133635 0.5
2.36868 -3.24814 2.98106 0.5
0.851578 -3.80633 -0.385918 0.5
-4.81915 -0.710483 2.64737 0.5
2.8387 2.32904 2.35595 0.5
4.71141 -0.458672 1.48246 0.5
3.30727 4.76741 -1.34778 0.5
-0.522939 -3.05191 -0.179055 0.5
4.27978 3.42072 0.260707 0.5
2.46488 1.424 1.44909 0.5
3.54769 -0.773551 0.37672 0.5
-1.64748 -3.39621 -1.79349 0.5
2.87569 -0.0970174 -1.3038 0.5
3.75992 -3.15385 2.36399 0.5
0.557465 1.1631 -1.04593 0.5
2.665 -4.32982 0.0705325 0.5
4.52067 0.253792 1.10034 0.5
3.03319 -2.8406 0.881671 0.5
2.8777 -2.4551 -0.185757 0.5
2.45442 -3.15779 1.3185 0.5
3.40858 -2.63246 0.0107232 0.5
-1.67717 -4.66572 1.41156 0.5
-4.3185 4.96047 0.20723 0.5
-4.2062 -1.9797 -1.58995 0.5
3.56833 1.93725 0.317067 0.5
0.225934 -3.67976 -1.83441 0.5
-3.46055 -1.04366 2.48813 0.5
-0.15804 4.77616 -0.534099 0.5
-3.94367 -1.53115 2.19025 0.5
-4.42095 4.72653 1.5102 0.5
-3.5528 0.864161 0.132418 0.5
0.49806 -2.57028 -1.08269 0.5
-4.046 3.73557 0.0969826 0.5
-3.22327 0.113991 -1.65872 0.5
3.11484 -1.77987 -1.55015 0.5
-2.64281 -3.71406 -1.93521 0.5
-3.29626 2.66429 -1.85568 0.5
-1.9804 0.34984 2.67045 0.5
-4.52462 4.58026 -1.12515 0.5
-1.22525 1.13684 0.257445 0.5
3.41447 1.82094 -1.10853 0.5
4.57946 1.7546 -0.144085 0.5
2.56742 -3.56511 -0.497323 0.5
-2.3993 -3.87213 -0.513334 0.5
3.57098 -3.17299 1.40906 0.5
-4.12493 -0.172637 0.721908 0.5
-0.494067 -0.36202 -0.492646 0.5
3.68077 4.85181 -0.160101 0.5
1.31629 -2.10813 2.1762 0.5
-4.88589 -3.84927 -0.3373 0.5
-4.64045 3.85025 1.84092 0.5
4.31154 4.30225 -1.59053 0.5
2.50751 0.981837 -0.0410237 0.5
-1.87703 2.55596 -1.95709 0.5
-4.50699 2.85719 1.25428 0.5
0.383492 -2.87065 2.77784 0.5
-1.91111 -2.91584 -1.92217 0.5
0.335339 -2.64029 -1.474 0.5
4.11204 3.13639 0.17131 0.5
1.82707 -4.11524 2.8455 0.5
-2.17893 -0.223456 -1.53964 0.5
3.28382 4.38914 -0.54118 0.5
0.629913 -1.2404 2.40503 0.5
4.63828 0.117272 -1.9574 0.5
2.02833 -3.74128 -1.06511 0.5
-0.156427 -1.76284 -1.20054 0.5
-2.47654 -2.00833 2.1815 0.5
-4.62925 0.798049 2.17799 0.5
-3.2927 0.14937 2.2084 0.5
3.43049 -2.22187 -1.7261 0.5
3.5402 -1.72871 -1.33335 0.5
-4.87346 0.92989 2.9207 0.5
-1.24984 -4.37956 1.26164 0.5
4.25835 3.1441 -1.55145 0.5
0.859006 -0.387005 2.34141 0.5
-2.67728 -0.774184 -0.128023 0.5
3.38106 -1.94524 2.98602 0.5
4.35876 -1.16962 0.443632 0.5
4.18987 0.187764 -1.33018 0.5
4.63091 -4.59931 -0.122684 0.5
-3.36521 2.9233 -1.83642 0.5
-0.750866 1.34494 2.0456 0.5
-2.50772 4.98835 -1.51328 0.5
3.73205 -0.663126 0.956411 0.5
0.711433 2.19063 2.15849 0.5
-0.365023 3.04407 -1.90727 0.5
-1.10759 4.79448 0.482396 0.5
-1.16359 3.59427 1.04974 0.5
0.483296 1.09233 -1.23729 0.5
0.8164 -1.46136 -1.93907 0.5
2.93152 -4.98129 2.83636 0.5
-4.88736 2.59539 2.92517 0.5
-3.36387 -3.86802 2.30649 0.5
2.39478 4.57757 0.350976 0.5
1.76674 1.12085 2.61794 0.5
0.356558 0.679729 1.21369 0.5
-0.0252063 -1.52091 1.27767 0.5
-3.36925 -3.36829 2.56249 0.5
-1.53532 -1.26384 -0.615402 0.5
-0.248681 4.29376 2.72331 0.5
0.64449 -4.31336 1.86951 0.5
-3.59134 -2.9709 2.38041 0.5
0.518656 -0.286029 -1.41799 0.5
-1.95445 -1.72123 -1.93049 0.5
0.113687 3.89816 -1.36357 0.5
0.651219 4.64656 -0.39226 0.5
-3.12091 -4.84642 -1.15536 0.5
-4.9576 -3.46147 -1.65644 0.5
-2.57931 -0.446988 0.930165 0.5
2.55189 0.275682 2.87497 0.5
2.99628 -1.45693 2.04048 0.5
-1.0416 -0.165538 1.72501 0.5
1.01866 -3.02682 -0.443542 0.5
4.94247 3.0833 2.47313 0.5
-3.15255 1.99384 -0.923419 0.5
-2.50937 -0.75101 2.72346 0.5
4.92683 1.42397 -1.82091 0.5
4.54771 -1.35742 1.56928 0.5
0.523952 -2.70252 1.35372 0.5
4.48628 1.15638 2.48873 0.5
-2.34143 1.40275 2.95477 0.5
0.399631 4.78881 0.774583 0.5
-2.17747 1.81133 0.80412 0.5
-4.88432 3.40315 -0.337815 0.5
1.25416 3.61787 1.14222 0.5
-1.42763 -3.87664 1.44349 0.5
-1.74425 1.47289 2.44739 0.5
1.87988 -1.84129 0.278791 0.5
3.67385 -3.89113 2.30006 0.5
3.44956 -4.64135 1.83496 0.5
2.49482 -4.61707 0.889768 0.5
2.38394 0.814651 -1.37966 0.5
2.58281 -4.93216 -1.96947 0.5
-4.62335 -2.16243 1.54135 0.5
3.39573 -4.16675 2.17457 0.5
4.05217 -2.13636 1.74124 0.5
-4.13136 3.12538 2.60245 0.5
-4.30115 2.71145 1.47882 0.5
-0.212557 -2.13177 2.95069 0.5
-2.15725 1.34721 0.619247 0.5
-0.0748222 0.649047 -0.565621 0.5
-0.779951 3.82344 -0.520842 0.5
-2.67521 -4.62913 1.43047 0.5
2.24905 -4.17814 0.722153 0.5
4.60994 4.91345 0.915667 0.5
-0.0281206 4.58267 -0.670964 0.5
4.39683 -2.6114 -1.42725 0.5
0.693267 -1.9084 1.77 0.5
3.74485 -4.84359 2.8589 0.5
1.50759 4.78348 2.1436 0.5
-2.46288 -1.41283 1.42948 0.5
2.60046 -0.243154 -1.21554 0.5
3.544 -0.653326 -0.725745 0.5
2.14154 -4.96982 1.24169 0.5
-4.13075 0.410353 1.98528 0.5
0.463883 2.01955 2.61257 0.5
1.46195 -4.3136 -1.04897 0.5
4.51045 -4.14686 -1.19869 0.5
-3.94111 -1.10209 1.36442 0.5
1.74605 1.55722 0.00657283 0.5
-1.76744 -0.960749 2.14127 0.5
-2.9626 -0.580843 0.00494499 0.5
0.829317 4.63659 2.39079 0.5
-1.4049 1.7681 0.55402 0.5
2.33016 3.72 -1.58793 0.5
4.84176 1.96764 -1.61743 0.5
-1.62514 -0.678058 2.5853 0.5
1.3188 -4.5747 2.32685 0.5
3.48449 4.90816 0.451875 0.5
-4.65439 -1.74786 -0.976907 0.5
3.75794 3.4565 0.255316 0.5
2.52724 2.78604 -0.304066 0.5
4.4758 -3.84726 0.834377 0.5
2.12362 -1.1257 0.540054 0.5
-4.42253 -0.984929 2.0661 0.5
3.24209 0.666627 -1.09606 0.5
4.69113 3.98963 -0.91497 0.5
1.60595 0.405632 -0.566658 0.5
-2.08355 1.48758 2.6995 0.5
-2.00701 4.15207 1.01622 0.5
1.28089 -4.45792 1.46174 0.5
2.6065 -2.27449 0.41679 0.5
-3.35767 1.31498 0.854647 0.5
-0.581357 -3.50298 -0.627486 0.5
-1.93065 -4.27783 1.84093 0.5
1.45612 -2.8667 1.02633 0.5
-2.07669 -4.9557 -1.91102 0.5
-3.62154 4.37978 0.30688 0.5
-0.674052 -4.27436 1.26218 0.5
-2.51056 0.991407 0.2695 0.5
-3.36795 4.64994 0.278058 0.5
-1.00155 4.92954 0.807152 0.5
4.74628 4.15206 -1.39444 0.5
3.53321 3.20368 -1.51516 0.5
-1.84033 -2.83485 1.0462 0.5
-3.0411 -4.85536 -1.42648 0.5
4.38217 -1.26481 1.95308 0.5
0.100057 -0.840972 1.53465 0.5
-3.66902 0.427634 -1.6711 0.5
-4.17194 -1.29497 2.76966 0.5
2.79617 -4.27246 -0.315766 0.5
1.48387 -1.65944 1.28044 0.5
-1.73646 -4.53955 2.61484 0.5
-2.76066 -3.2824 2.44289 0.5
-3.94699 4.19142 2.82265 0.5
0.646013 1.95246 2.57142 0.5
3.53408 -2.80912 1.22004 0.5
-0.661404 2.84156 0.6586 0.5
4.44983 0.812902 -1.3475 0.5
4.63889 3.75516 1.60231 0.5
-0.0026473 2.07515 -0.0210759 0.5
-0.665654 1.49418 -0.869017 0.5
0.450579 4.55976 2.65185 0.5
-4.26926 -2.5462 -1.6199 0.5
-2.90923 -4.16664 0.545109 0.5
-4.84236 -1.01301 -1.94453 0.5
-2.74347 -3.497 1.66188 0.5
1.82278 2.842 0.976142 0.5
0.522756 1.515 -1.01011 0.5
4.79543 -2.67646 -0.37114 0.5
-1.19924 -1.04991 -1.40453 0.5
-3.58881 -0.859934 -1.53801 0.5
3.88076 -3.60448 -1.46452 0.5
3.34876 3.59566 -1.05587 0.5
-0.664734 -3.85673 -0.136687 0.5
1.95747 -4.18809 -1.34335 0.5
1.67956 -0.316986 -1.36666 0.5
-0.0982302 -3.81484 0.684952 0.5
3.58376 -0.175892 0.331159 0.5
1.33515 3.06897 0.278341 0.5
3.5184 0.980382 2.50623 0.5
-0.126249 -1.53624 0.0600796 0.5
-0.535707 4.01968 -1.54859 0.5
-2.40147 -2.18889 2.98339 0.5
4.36626 0.316048 -0.633433 0.5
3.96637 -0.72618 1.86341 0.5
3.96101 3.64564 0.637141 0.5
2.44869 -4.08774 1.34429 0.5
-3.18662 -3.69666 -1.0365 0.5
-2.31772 -2.04926 -1.91287 0.5
3.47495 1.11211 1.23472 0.5
-3.77426 -3.40192 2.75133 0.5
-2.171 2.02048 1.45162 0.5
-1.95865 -3.84221 1.16892 0.5
0.27279 -0.329538 -0.413019 0.5
-1.63561 -1.49757 0.946462 0.5
-1.69536 3.31771 1.52119 0.5
-3.35759 3.37463 0.490499 0.5
1.47042 -1.51951 0.33433 0.5
-0.168741 -2.05636 -0.637796 0.5
-1.92778 -1.33826 1.21485 0.5
2.07396 0.0855928 -0.855582 0.5
-0.741703 1.75958 1.92035 0.5
-2.42003 -1.84102 -1.08048 0.5
-4.905 -0.125165 2.2258 0.5
1.18542 3.37834 1.28489 0.5
0.927158 1.72072 2.97668 0.5
-0.255564 2.63911 2.92964 0.5
-0.740165 -1.71266 -1.24992 0.5
0.960148 3.8088 -0.420121 0.5
4.31748 1.612 0.195514 0.5
1.51697 -3.96028 -0.351015 0.5
-0.0976664 -2.60055 2.77355 0.5
1.76136 -3.88689 1.91791 0.5
4.37337 -2.07137 1.50138 0.5
0.539665 -4.28897 0.382808 0.5
-3.21361 -3.67289 0.0194906 0.5
2.74086 0.85888 1.61385 0.5
-1.68701 0.446095 -0.140458 0.5
-2.3409 0.575059 1.84379 0.5
-1.78797 4.79517 -0.148974 0.5
3.52705 -4.13573 -1.10583 0.5
-1.25947 4.36351 0.435206 0.5
-2.35678 -3.661 2.48715 0.5
2.69693 3.48732 -1.33871 0.5
-1.11181 2.31647 0.0374878 0.5
4.73417 4.96689 1.29925 0.5
-0.254463 -1.55118 -1.07048 0.5
1.33682 2.75522 2.90908 0.5
-1.55274 0.0202136 -0.251192 0.5
-1.74018 -0.499956 -0.389766 0.5
3.21741 4.96746 -1.00782 0.5
-4.52144 -0.912994 1.90703 0.5
-3.59031 0.187917 -0.922956 0.5
-1.14545 0.301838 -0.960731 0.5
0.156084 -0.715885 -1.62545 0.5
-4.34636 -2.54583 2.01186 0.5
1.35925 0.574337 -1.41237 0.5
-3.21661 -0.32333 -0.860805 0.5
4.98727 -4.28323 0.643004 0.5
4.01103 -4.31505 -0.768255 0.5
1.82979 0.706891 2.45717 0.5
1.57557 -4.62065 -1.5168 0.5
-3.60546 2.182 1.0875 0.5
3.63933 1.46317 1.28001 0.5
-2.42667 1.7703 -0.890159 0.5
-0.612156 1.39156 1.67645 0.5
-3.94643 4.71008 -0.401999 0.5
-0.760061 -1.08257 1.11798 0.5
0.557564 -1.11793 1.63292 0.5
0.238426 -3.25021 0.464882 0.5
-4.22503 0.18571 0.850802 0.5
2.22539 -1.08614 1.36666 0.5
-4.37382 -2.49121 2.78435 0.5
-2.93867 0.461849 2.41779 0.5
-3.91112 3.55583 2.33572 0.5
-2.29852 4.44227 -1.00102 0.5
0.842025 0.997356 -0.156905 0.5
-3.89303 -2.04466 1.34505 0.5
-1.40234 2.49309 -1.00674 0.5
3.90527 -2.08881 -0.424224 0.5
-1.76829 4.11094 -1.01322 0.5
-3.1668 2.03944 -0.861523 0.5
-2.18407 4.04937 -0.986222 0.5
0.663972 0.631198 2.88184 0.5
-1.61044 -1.08523 1.25401 0.5
-0.500282 1.83655 -1.08414 0.5
0.08647 0.828142 -1.50176 0.5
4.8692 3.26623 -1.73281 0.5
3.55374 -3.45643 -0.596985 0.5
-2.77061 0.752359 0.828771 0.5
2.87303 4.66854 0.462296 0.5
2.59733 -1.00177 -1.54588 0.5
-3.6481 -4.34338 1.44149 0.5
0.949213 1.26093 0.453144 0.5
2.4162 -4.76838 0.613987 0.5
-1.93715 0.520768 -1.6531 0.5
-2.4235 0.406432 1.92626 0.5
2.12934 -0.227907 -1.78292 0.5
-2.06641 1.84882 2.15116 0.5
0.942259 1.5251 0.697112 0.5
0.896634 1.24689 1.96713 0.5
0.0133001 4.3761 -1.79841 0.5
-2.48534 2.05146 -1.53875 0.5
0.38287 0.503398 -1.39419 0.5
3.50535 -2.12292 0.468268 0.5
2.14805 4.86219 0.359063 0.5
3.27226 -2.70223 0.299568 0.5
-0.107206 1.2914 -1.60792 0.5
1.42787 0.211183 1.40046 0.5
-3.56778 4.02012 -1.25046 0.5
1.98092 2.98829 -1.34308 0.5
1.03096 -1.51933 0.655097 0.5
-4.4235 -1.60147 0.450586 0.5
-3.08745 2.93958 -0.29444 0.5
-3.41824 -4.88903 -0.998842 0.5
2.24633 3.33642 -0.0105764 0.5
-1.75949 -2.4463 0.499148 0.5
0.8952 4.50659 2.79386 0.5
3.01835 -0.931332 -1.92697 0.5
-1.3764 3.86253 -0.783811 0.5
-0.930363 3.57221 -1.06635 0.5
-0.414943 4.95677 -0.943548 0.5
3.64089 1.25227 2.86954 0.5
2.38883 1.15624 -0.331588 0.5
4.54295 0.931909 -1.85131 0.5
-1.11082 -0.280521 0.0984667 0.5
3.52367 1.08371 -1.40824 0.5
3.07756 2.02831 0.248196 0.5
3.038 -2.82889 2.22733 0.5
3.80454 -2.18921 -0.647012 0.5
-2.36415 -4.3896 2.39174 0.5
2.25857 -4.84082 0.827867 0.5
0.146172 -3.06167 2.25909 0.5
0.653177 -1.15766 -0.513239 0.5
1.66578 -3.37644 1.12163 0.5
2.54872 0.513241 -0.713595 0.5
3.89262 -4.51335 2.65454 0.5
-1.06479 -1.78642 0.515272 0.5
-2.56995 -4.93884 -0.020172 0.5
2.74076 3.36857 2.13445 0.5
3.25158 3.38555 0.873547 0.5
0.896441 -4.94513 1.37976 0.5
-3.31396 -2.65037 2.82868 0.5
4.38299 -2.65354 1.63453 0.5
-0.961864 -0.390771 0.712839 0.5
0.335971 2.89102 2.07837 0.5
-0.584681 3.6312 2.08087 0.5
-4.96703 1.6361 0.236465 0.5
-2.21285 4.49655 -1.05136 0.5
0.180913 -2.88653 2.15874 0.5
-1.94956 -4.43018 1.7207 0.5
3.98926 -2.98632 1.17414 0.5
-3.18332 1.90734 -1.65354 0.5
-0.999164 4.59542 -0.652502 0.5
1.91145 -2.40806 -1.27005 0.5
2.37258 -1.27356 -1.14467 0.5
1.6966 -4.30139 -1.69764 0.5
-0.242858 3.18579 1.59989 0.5
1.32965 4.23381 2.32031 0.5
-1.67216 -0.565849 -1.73284 0.5
2.0823 -2.74277 1.55678 0.5
-3.50144 4.44111 0.884315 0.5
-0.467904 -1.02753 2.25858 0.5
1.97617 2.28615 -0.921698 0.5
-4.09299 -3.9282 2.51615 0.5
0.929565 3.23478 -1.87229 0.5
-0.72754 1.57948 -0.887173 0.5
1.51981 1.443 2.37767 0.5
3.42272 3.23096 -0.96428 0.5
-1.84648 2.68573 0.589056 0.5
4.25166 2.91191 1.58577 0.5
-1.07544 3.16463 0.588923 0.5
-4.55344 -3.9929 -0.23929 0.5
1.60178 4.11043 1.13008 0.5
-2.68956 0.702221 0.496253 0.5
-2.70631 0.623611 2.91953 0.5
-4.25893 -4.38944 2.27066 0.5
0.74901 4.53851 2.2314 0.5
2.62724 4.45947 1.02998 0.5
-3.53111 0.128054 -1.30535 0.5
-2.94267 4.86158 0.978977 0.5
4.65266 -3.19902 2.70951 0.5
0.509146 -0.0899688 -1.64675 0.5
4.67187 -0.369504 0.664634 0.5
-4.88186 -2.93775 2.48212 0.5
-4.6917 -1.6947 0.98511 0.5
1.15574 -0.262325 1.86837 0.5
-2.21228 4.30453 2.49332 0.5
3.48366 2.81203 -1.39631 0.5
4.21653 3.35195 0.75516 0.5
-2.50998 -4.42602 -1.00109 0.5
1.94002 -1.39472 -1.40417 0.5
-0.0746927 -2.65777 -0.261206 0.5
1.91924 4.65417 1.01992 0.5
1.68518 3.50327 1.09444 0.5
-2.35073 2.16516 0.554359 0.5
-4.6091 -1.40515 1.8354 0.5
3.69589 -4.24487 -0.94292 0.5
1.54597 -3.73308 -1.75618 0.5
-4.6521 2.75131 -0.572157 0.5
-1.05014 -4.07015 1.09991 0.5
2.33318 3.05047 1.24611 0.5
-3.8282 -1.46061 -0.0849721 0.5
0.15062 1.65839 1.27641 0.5
0.00918186 4.62558 0.535085 0.5
-2.3957 -4.12841 -1.90163 0.5
3.24079 -2.98673 -1.05934 0.5
2.35433 0.233565 2.04227 0.5
-0.858139 2.56759 2.63315 0.5
0.117875 4.9939 1.66786 0.5
2.47439 -1.37049 2.54991 0.5
3.40673 -3.45225 1.39387 0.5
-0.258121 -0.924925 0.369686 0.5
2.56036 3.20993 0.206909 0.5
-0.847826 -1.45586 0.821073 0.5
0.177885 -3.1782 0.589355 0.5
2.82709 2.29323 -0.931345 0.5
4.85638 -1.30438 -0.539635 0.5
2.30876 -1.96016 -0.996978 0.5
-1.53766 2.06874 1.09485 0.5
1.24047 1.57076 -0.0751942 0.5
-0.908639 -2.27164 2.54788 0.5
3.16078 2.14827 1.82478 0.5
-0.0385879 -0.982624 -0.254807 0.5
3.00925 2.16945 2.53433 0.5
2.31069 2.72747 -0.604538 0.5
4.36894 -4.31596 0.23491 0.5
-3.08003 -1.90287 0.499044 0.5
1.13461 -4.8033 -0.283926 0.5
-1.38617 4.35664 1.67593 0.5
3.95269 -0.437737 -0.434074 0.5
-0.18758 4.57879 0.661243 0.5
0.010191 4.71913 2.0239 0.5
2.89262 -3.34422 -1.54857 0.5
-1.54599 3.38262 0.794319 0.5
1.8061 -2.92363 0.188429 0.5
2.80836 -4.95717 -1.13693 0.5
-0.589452 -2.04903 -1.25591 0.5
-0.514441 -1.1573 0.839946 0.5
0.0994548 1.37418 -0.732246 0.5
2.87357 -4.88037 -1.63703 0.5
4.8423 3.18254 2.35688 0.5
-3.75392 4.45093 -0.251345 0.5
-4.3395 2.41818 2.83805 0.5
1.14323 3.81257 2.3794 0.5
1.09265 -4.03351 -1.41731 0.5
4.91278 -4.10268 -1.93976 0.5
0.0771498 -3.917 0.655188 0.5
-2.03603 0.244183 2.25135 0.5
-0.302417 2.35102 1.96585 0.5
4.48403 0.54542 -1.1143 0.5
4.22328 -4.51862 1.70832 0.5
-3.95112 -0.871026 2.78196 0.5
0.212922 -4.55169 1.19472 0.5
1.03375 2.51074 0.770156 0.5
-4.54685 0.0163272 -1.19942 0.5
-4.84371 0.644374 1.12288 0.5
-1.84101 4.6241 0.398617 0.5
-2.56286 -3.75021 1.63604 0.5
-2.32084 -4.89989 1.08205 0.5
4.60512 -0.309839 1.6702 0.5
-0.314246 -0.135363 -0.901506 0.5
1.9554 -1.27932 0.734396 0.5
4.76125 2.09509 0.856448 0.5
1.11554 -1.94588 -1.0868 0.5
-2.27277 -1.39543 0.0165038 0.5
4.03542 -3.68154 -1.52123 0.5
3.84275 -3.35549 0.42054 0.5
1.79479 1.24956 2.80883 0.5
2.79801 0.404389 -0.440409 0.5
3.14653 4.89929 1.59302 0.5
-2.44302 1.84102 2.22126 0.5
-1.03293 1.54805 1.90066 0.5
-0.471703 -2.23041 -1.65134 0.5
3.73153 -1.76081 -0.944704 0.5
-0.392096 2.52446 1.42062 0.5
4.0821 -0.451377 1.55495 0.5
-1.60817 -1.18947 0.131253 0.5
1.83492 4.11431 -0.521297 0.5
-0.456211 -1.42904 0.19701 0.5
-0.984815 2.53179 1.86444 0.5
0.12563 3.91366 0.351394 0.5
1.11678 3.03064 0.584573 0.5
1.40829 -2.75779 -1.08439 0.5
-1.63802 1.78663 -1.68651 0.5
3.99908 -3.77547 0.857217 0.5
1.3576 -4.72406 -0.703341 0.5
-3.97862 2.05895 2.71894 0.5
3.747 4.32185 -0.122979 0.5
-4.27469 1.24287 -1.08828 0.5
3.86532 0.299072 1.69053 0.5
3.13439 4.57194 1.45504 0.5
1.79277 0.777301 -1.16409 0.5
0.0124764 -2.70645 2.74469 0.5
4.70182 3.92553 1.04423 0.5
-0.68765 -2.69205 -0.902693 0.5
4.1951 -4.76934 2.41608 0.5
-2.3608 -1.30611 2.46108 0.5
1.46488 2.37233 2.95877 0.5
-2.18491 3.494 -0.0687771 0.5
-4.17968 2.41041 -0.411364 0.5
-3.4502 -3.50881 1.21911 0.5
-1.74621 0.354517 0.428041 0.5
4.19503 4.33512 1.81575 0.5
2.14108 0.77432 0.652555 0.5
-0.331212 -2.24452 1.69171 0.5
0.286603 -0.0198388 0.552153 0.5
-2.53517 1.99972 -0.474618 0.5
0.988494 -0.634749 -0.185526 0.5
4.02842 3.2652 2.03611 0.5
4.06538 4.91016 0.709896 0.5
-2.07121 2.75399 1.8558 0.5
-4.12813 3.9346 -1.69456 0.5
-2.69747 0.842128 -1.05331 0.5
3.19351 1.29261 -0.110869 0.5
0.319645 -3.25379 1.85472 0.5
3.42739 3.49031 -0.168654 0.5
-2.64772 4.38849 1.51844 0.5
-0.28749 0.665606 0.673071 0.5
0.0773831 -0.582911 -1.53616 0.5
-2.82451 -1.30978 2.30666 0.5
1.20498 0.708059 2.38319 0.5
4.46748 -0.399422 0.212201 0.5
0.951089 -1.20875 1.77328 0.5
3.76505 -1.02478 0.758814 0.5
0.879705 -0.44208 1.17742 0.5
-3.2556 -1.33357 1.49913 0.5
-0.90766 3.10175 -1.38203 0.5
-3.88907 4.94499 0.547153 0.5
-1.80275 -4.83162 0.637854 0.5
-4.71393 1.40879 -0.650808 0.5
-2.15412 1.62935 -0.771716 0.5
3.34952 1.92791 -1.6745 0.5
2.84366 4.99417 2.17367 0.5
-0.274246 -3.65734 2.37362 0.5
4.86592 0.664377 0.345863 0.5
-3.65351 -1.59807 1.31285 0.5
-2.47699 -2.13023 1.22597 0.5
-3.23897 -2.23069 -1.10005 0.5
-3.08387 2.97287 -1.04117 0.5
-0.383574 -3.94293 -1.4449 0.5
-1.94361 -3.81665 -0.202336 0.5
4.19923 1.5978 -0.97564 0.5
3.62132 -4.58861 -0.676795 0.5
3.2785 3.67035 1.06493 0.5
2.24422 2.52175 -0.575544 0.5
-2.68968 4.35015 2.30294 0.5
-0.736314 -2.48616 1.69605 0.5
4.69145 3.13819 -0.647327 0.5
3.20507 -4.31591 2.90696 0.5
1.70909 4.06408 -1.74664 0.5
2.18712 2.12042 0.423689 0.5
3.92253 -4.2468 -0.801019 0.5
3.18022 0.76213 2.82403 0.5
4.99761 4.18261 1.33613 0.5
-3.72823 -1.59133 0.273029 0.5
0.390051 0.268706 -1.06719 0.5
-3.6613 4.56457 0.00773667 0.5
4.93509 0.570217 2.09102 0.5
-3.71366 1.05274 0.0890924 0.5
-3.43243 1.06444 1.98036 0.5
-2.70341 -1.14138 2.85226 0.5
0.0954048 1.66051 -0.666934 0.5
1.96711 -4.2277 0.545101 0.5
1.61262 3.60101 2.14857 0.5
-2.00367 -3.60711 0.128383 0.5
-4.05266 4.63123 -0.323332 0.5
-3.45448 0.664861 -1.03476 0.5
4.2646 -2.22574 1.30215 0.5
3.37353 -3.17949 2.10377 0.5
-1.82911 4.0722 1.27494 0.5
2.6308 -2.75075 -1.43323 0.5
-2.83152 -4.32003 0.655819 0.5
1.52565 0.871225 0.630862 0.5
-4.89893 -0.182426 2.91788 0.5
-4.61721 3.34944 0.842288 0.5
4.469 -4.04505 0.12785 0.5
-2.52945 0.722005 1.22995 0.5
3.55299 0.834791 -1.85739 0.5
-2.44073 2.67367 0.0716187 0.5
1.2922 2.59357 -0.313021 0.5
-4.33165 3.19418 -0.636503 0.5
4.11607 -3.06677 0.0305963 0.5
3.55617 -1.00134 2.28015 0.5
-1.87103 2.20727 -0.852903 0.5
2.11024 -1.57356 -0.848629 0.5
1.79352 0.202267 -1.89103 0.5
-3.03497 2.48636 -1.03949 0.5
-4.47993 -1.96259 -0.488282 0.5
-3.52197 0.919867 2.26927 0.5
-3.21901 -2.04 0.322199 0.5
-2.32614 -0.0432499 -1.5087 0.5
-2.56684 0.994223 0.640192 0.5
-4.27972 3.898 2.70179 0.5
-0.547369 0.905019 -1.80399 0.5
-4.26227 3.04564 2.87623 0.5
-4.88267 -4.34634 -1.42044 0.5
3.64606 -1.93449 0.00485671 0.5
1.86917 -4.04657 -0.116151 0.5
-4.74947 -0.282848 -0.0350414 0.5
3.6476 -3.17794 -1.81654 0.5
1.1987 -1.17091 -1.87232 0.5
2.94845 -2.33238 0.473572 0.5
2.46066 -3.69861 -0.37304 0.5
-3.68526 -0.851263 2.94937 0.5
-1.09621 -0.967711 1.71539 0.5
-2.64336 2.1191 2.995 0.5
-2.51993 -1.03636 0.672869 0.5
-3.62451 -4.19889 -0.995407 0.5
1.70779 -4.49887 0.81779 0.5
-4.86831 1.68385 -1.49757 0.5
2.55369 1.1153 2.7604 0.5
4.60675 2.0862 0.776666 0.5
2.78845 -4.80754 1.40027 0.5
1.56317 2.46317 -0.419128 0.5
-3.94561 4.23497 2.2834 0.5
3.79212 -1.53885 2.8175 0.5
1.08685 -0.781842 1.72205 0.5
-0.212721 -4.45906 -1.98228 0.5
-4.70575 3.61323 0.163575 0.5
-0.277342 -1.41671 2.25277 0.5
-1.00028 1.41648 2.00058 0.5
-2.2196 2.36559 1.5493 0.5
0.600055 1.46565 2.51743 0.5
1.54847 -3.9828 1.37007 0.5
1.44534 0.866281 0.557145 0.5
-2.96878 -3.57487 -0.0546992 0.5
-4.88865 3.36458 -1.58192 0.5
3.65845 3.71557 1.70151 0.5
1.69893 -4.11953 1.3325 0.5
0.996707 -0.921216 2.49433 0.5
1.085 4.25179 -1.20749 0.5
4.80089 -3.59862 -1.1498 0.5
-4.65236 3.55313 1.90703 0.5
-4.6198 -4.45542 0.0366361 0.5
-0.975711 4.43662 1.18238 0.5
4.75463 4.64329 -0.108931 0.5
-2.65935 -3.79899 2.38769 0.5
-2.22456 -2.10069 2.56 0.5
-1.04657 0.196215 -1.62666 0.5
-0.950334 -1.92618 0.890877 0.5
2.49562 2.90374 -1.55926 0.5
-3.33609 -3.81282 2.37487 0.5
0.779192 -0.317833 -1.37722 0.5
-2.02217 -2.74353 -1.64022 0.5
-0.99953 -3.51864 2.23689 0.5
-4.17033 -2.65791 1.15137 0.5
1.53601 3.63324 1.84827 0.5
3.76056 -4.75236 -0.468161 0.5
-4.26704 3.86974 -1.91482 0.5
-3.8623 0.468862 -0.167963 0.5
-1.85491 -1.56967 -1.60896 0.5
4.55055 0.735686 1.08557 0.5
-4.32198 -1.5688 1.87625 0.5
2.55723 -1.4406 1.50346 0.5
1.26412 1.6196 -1.48209 0.5
1.91035 -2.20271 1.94005 0.5
-3.93035 1.42196 -1.54372 0.5
3.36184 -4.1824 1.8824 0.5
-2.19348 3.14951 2.147 0.5
1.0441 1.66574 -0.917995 0.5
-4.83539 -2.7195 -0.192948 0.5
-3.53924 4.02726 -0.944124 0.5
-1.77838 1.7739 1.22629 0.5
1.31653 0.558292 -0.327789 0.5
-3.05382 -1.20845 0.490763 0.5
0.906964 -0.983682 -0.127107 0.5
-3.14292 1.8786 -0.361346 0.5
3.00044 -3.04368 2.95847 0.5
3.90412 -3.47078 1.76229 0.5
2.87526 1.98643 -0.380069 0.5
0.0575468 3.1927 1.0759 0.5
0.151281 0.705017 -1.40239 0.5
-4.89111 2.94 -1.85473 0.5
0.922962 0.342002 -1.5857 0.5
3.69059 -3.18398 1.69278 0.5
-1.36672 -1.47535 -0.594232 0.5
2.48996 3.35576 -1.0895 0.5
-1.58252 -2.03288 2.86214 0.5
2.87555 2.63313 -1.03624 0.5
4.45626 1.00173 0.56737 0.5
-3.48347 4.19856 2.49551 0.5
4.686 -1.51223 1.90059 0.5
2.39902 -0.460761 1.59133 0.5
1.84661 -0.24282 0.465585 0.5
4.51144 1.5821 -0.203271 0.5
2.67828 -3.79504 1.50892 0.5
0.518916 1.47176 1.0916 0.5
3.29232 -1.17351 2.67502 0.5
4.16069 -0.61582 2.28749 0.5
-1.03635 3.00462 0.511608 0.5
-4.81818 4.46908 -1.69956 0.5
-3.65474 -2.94917 -0.253602 0.5
3.91173 -0.0655908 -1.24753 0.5
2.04257 -4.39157 1.35818 0.5
-2.28528 -4.27632 1.13113 0.5
4.87514 3.82257 -1.89648 0.5
1.30548 3.02935 0.773527 0.5
-4.58463 2.30337 -0.600038 0.5
4.14706 -3.82807 -1.79953 0.5
-0.435976 3.71356 -1.24982 0.5
4.53424 0.0142903 -1.67994 0.5
-0.705045 -3.44461 1.65604 0.5
-3.61841 -1.97539 0.564634 0.5
2.736 -2.97216 2.06169 0.5
3.6027 2.64112 1.70043 0.5
1.58982 0.956034 -0.967497 0.5
-0.909434 -2.79733 0.626179 0.5
4.59389 -1.61244 0.132826 0.5
3.99821 -1.87714 1.03206 0.5
