# .PCD v.7 - Point Cloud Data file format
VERSION .7
FIELDS x y z intensity
SIZE 4 4 4 4
TYPE F F F F
COUNT 1 1 1 1
WIDTH 1000
HEIGHT 1
VIEWPOINT 0 0 0 1 0 0 0
POINTS 1000
DATA ascii
-0.216 -0.259 -0.900 0.275
0.410 2.415 0.707 0.677
0.498 -0.401 -0.312 0.422
1.035 0.196 0.021 0.505
0.985 0.166 0.600 0.650
-1.017 -0.295 0.357 0.589
0.062 -0.159 1.223 0.806
-0.438 -1.296 -1.378 0.155
1.310 -0.361 -1.629 0.093
2.388 1.661 0.415 0.604
0.852 -2.272 0.145 0.536
1.442 -0.246 0.208 0.552
0.996 -1.829 1.447 0.862
-2.071 -1.094 -1.817 0.046
0.172 1.228 -1.681 0.080
0.075 0.688 -0.888 0.278
-0.940 -1.076 -0.519 0.370
0.298 1.144 1.747 0.937
-1.229 -1.648 -1.315 0.171
-0.117 -0.888 -0.482 0.379
2.140 -0.141 0.228 0.557
-1.152 -2.646 1.104 0.776
0.050 0.380 -0.738 0.315
-0.115 1.026 1.772 0.943
0.930 -0.914 0.622 0.655
-2.637 2.029 -0.165 0.459
-0.105 1.124 0.245 0.561
-0.159 1.982 1.591 0.898
-0.852 0.624 1.990 0.998
-0.654 -0.039 -1.812 0.047
1.627 1.340 1.168 0.792
-0.480 0.255 -0.474 0.382
1.840 -0.045 1.884 0.971
0.146 -0.175 0.883 0.721
-0.774 -1.693 -0.933 0.267
-0.462 -0.565 -0.261 0.435
-3.564 1.066 1.503 0.876
-0.149 1.761 -1.285 0.179
2.587 -1.583 -0.806 0.298
-1.321 -1.575 -1.389 0.153
0.147 -1.862 1.115 0.779
-0.050 -0.010 -0.703 0.324
3.425 0.421 1.515 0.879
0.631 -1.120 -1.768 0.058
2.619 -2.521 -1.657 0.086
-0.566 0.050 1.042 0.761
0.078 -0.782 -0.099 0.475
-1.120 -0.362 1.490 0.872
-0.917 0.481 0.157 0.539
-0.126 -0.997 -0.753 0.312
2.172 -0.066 -0.248 0.438
-0.757 -0.084 -1.101 0.225
-1.050 1.700 -1.080 0.230
0.107 0.566 0.524 0.631
0.430 3.229 1.439 0.860
0.998 0.476 0.676 0.669
0.178 0.779 1.742 0.936
-1.531 -0.733 1.138 0.785
0.345 -0.912 -1.612 0.097
-1.429 0.661 -0.132 0.467
-0.294 -2.225 1.937 0.984
1.241 0.883 -0.643 0.339
0.732 -0.866 -1.239 0.190
-1.489 0.498 -0.886 0.279
0.004 3.399 -0.227 0.443
1.221 -1.451 -1.798 0.051
2.852 -0.013 1.876 0.969
2.609 -1.301 -1.335 0.166
-1.036 0.094 -0.396 0.401
1.366 0.527 1.941 0.985
-0.250 2.614 -0.180 0.455
-3.335 1.752 1.982 0.995
-2.243 -0.820 -1.381 0.155
-1.142 3.780 0.317 0.579
-2.403 -0.653 -1.771 0.057
-1.531 -0.895 1.411 0.853
2.097 3.190 -1.680 0.080
0.791 1.855 0.701 0.675
0.070 0.755 1.561 0.890
0.048 2.015 0.478 0.619
-1.735 0.965 0.091 0.523
0.930 -0.404 0.865 0.716
0.107 1.502 0.687 0.672
-0.404 1.244 1.007 0.752
1.491 0.731 1.994 0.998
0.585 -0.014 -1.147 0.213
-0.333 3.474 1.523 0.881
1.046 -0.991 -1.369 0.158
1.175 -2.023 0.447 0.612
2.178 -0.175 -1.969 0.008
0.518 -1.155 0.654 0.663
0.747 -0.302 -1.538 0.115
1.489 1.186 -0.911 0.272
-1.886 -1.460 -1.186 0.204
-0.781 -0.877 -0.046 0.489
2.404 -1.626 -1.631 0.092
-1.071 0.558 -1.986 0.004
0.283 -2.117 -0.952 0.262
-0.105 -1.897 -0.289 0.428
0.592 0.036 1.532 0.883
1.551 -1.069 1.338 0.835
-0.738 -0.421 -1.490 0.127
-1.150 2.999 1.184 0.796
2.058 -2.465 -1.160 0.210
0.002 0.699 1.120 0.780
1.144 -1.019 0.483 0.621
1.952 2.855 1.458 0.865
2.707 -0.408 1.526 0.881
2.420 0.380 -0.671 0.332
2.449 -1.137 1.456 0.864
0.440 -1.097 1.149 0.787
2.367 1.911 1.434 0.859
0.476 2.721 -0.159 0.460
-0.908 2.513 -1.090 0.228
0.972 0.146 -0.687 0.328
2.578 -2.948 -0.884 0.279
-0.955 -1.177 1.925 0.981
-3.459 -0.801 -1.539 0.115
0.925 -0.174 1.850 0.963
-0.070 0.715 -0.262 0.435
-0.175 -1.290 0.425 0.606
-1.476 -0.106 0.306 0.577
-0.070 2.355 -1.993 0.002
1.665 -0.841 0.878 0.719
-0.113 -2.233 -0.543 0.364
2.005 0.943 -0.679 0.330
-1.138 2.680 0.879 0.720
-0.401 1.226 -0.366 0.408
-1.027 0.723 -1.491 0.127
-3.126 1.707 0.709 0.677
1.699 -1.189 -0.796 0.301
-0.041 -0.013 -0.852 0.287
-1.787 0.842 0.619 0.655
-1.582 0.354 -1.145 0.214
-3.182 0.541 1.184 0.796
0.305 0.553 0.062 0.515
-0.909 -1.005 1.274 0.818
0.016 -2.242 -1.101 0.225
0.105 0.317 -1.021 0.245
-2.885 0.454 -1.709 0.073
-1.816 1.083 -1.222 0.194
-0.579 -1.653 -1.024 0.244
-0.088 -0.131 1.004 0.751
0.089 -0.707 -0.299 0.425
1.696 3.374 0.072 0.518
1.080 0.352 1.393 0.848
-2.597 0.729 0.670 0.668
2.012 -0.153 1.800 0.950
1.604 -1.303 0.877 0.719
-2.825 -0.085 0.191 0.548
1.976 -1.490 -0.101 0.475
-0.065 1.129 0.551 0.638
0.181 -1.812 0.507 0.627
-0.093 0.595 -0.857 0.286
-0.179 1.304 0.161 0.540
0.702 0.831 0.776 0.694
-0.148 -0.526 -0.370 0.408
-1.500 -0.411 -1.173 0.207
-2.852 1.565 0.336 0.584
-0.992 -2.785 1.062 0.766
-0.119 0.111 -0.593 0.352
0.064 -2.939 1.814 0.953
-2.173 1.212 0.185 0.546
-0.844 -0.640 -1.122 0.219
-0.335 0.143 -0.655 0.336
-0.658 -1.378 -1.340 0.165
-0.767 0.159 0.489 0.622
1.480 0.253 0.258 0.564
2.121 0.365 -1.457 0.136
-0.468 0.115 -0.484 0.379
0.318 1.296 1.045 0.761
-1.817 1.725 1.328 0.832
-0.009 0.620 -1.922 0.019
-6.269 -1.585 -0.600 0.350
-1.535 -2.117 0.607 0.652
0.098 -3.666 -1.203 0.199
0.855 0.110 -1.495 0.126
-0.937 -1.690 -1.128 0.218
-0.799 -2.432 -1.329 0.168
-1.946 -1.554 -1.542 0.115
1.636 -3.517 -1.568 0.108
1.280 0.208 0.709 0.677
1.456 -0.392 0.860 0.715
2.041 1.056 0.509 0.627
2.070 1.542 1.401 0.850
-0.615 -0.449 1.935 0.984
0.282 -1.356 -0.286 0.428
-1.224 1.294 -0.635 0.341
1.633 -2.260 -1.578 0.106
2.067 -0.520 1.315 0.829
-0.425 -1.547 0.935 0.734
1.162 -0.256 1.233 0.808
-1.675 -0.410 -0.258 0.436
-0.141 -1.177 1.407 0.852
0.310 -0.558 1.527 0.882
0.065 1.676 0.441 0.610
-0.262 0.249 1.404 0.851
0.430 0.942 1.191 0.798
-1.662 2.606 0.805 0.701
-0.035 0.211 1.792 0.948
2.056 1.226 -0.046 0.489
0.118 -2.295 0.584 0.646
-2.658 0.153 -1.628 0.093
0.409 2.265 -0.775 0.306
-1.480 -0.833 0.124 0.531
-2.216 1.120 -0.677 0.331
-0.348 -1.140 -0.994 0.251
0.712 0.675 -1.522 0.120
-2.478 -0.568 -1.259 0.185
0.362 1.688 0.898 0.725
1.810 -0.268 -0.868 0.283
0.795 0.582 -1.090 0.227
0.109 0.229 0.137 0.534
-0.618 4.012 0.213 0.553
-0.253 -0.737 1.474 0.868
-3.041 0.174 0.296 0.574
-1.587 0.309 -1.263 0.184
3.385 1.132 -0.089 0.478
0.664 -1.365 -1.704 0.074
-0.342 -0.362 -1.403 0.149
-1.178 -0.491 1.976 0.994
1.876 1.728 0.425 0.606
0.272 -1.038 0.090 0.523
-1.544 0.496 1.441 0.860
1.278 -0.080 0.484 0.621
-1.901 -1.565 1.790 0.948
0.271 0.997 0.642 0.660
0.511 0.773 -1.700 0.075
1.641 0.028 0.375 0.594
-0.279 1.052 0.828 0.707
-0.480 -1.579 0.750 0.687
2.345 -1.215 0.500 0.625
-1.850 -2.964 -0.299 0.425
-2.082 -0.599 1.634 0.908
0.267 -0.512 -1.336 0.166
-0.883 2.332 0.277 0.569
-0.186 0.750 0.755 0.689
-1.114 -3.409 0.002 0.500
-0.614 0.024 -1.841 0.040
-1.204 0.548 -0.999 0.250
3.221 2.082 1.344 0.836
-3.278 -1.675 1.998 1.000
-0.558 -1.050 -1.839 0.040
0.067 -1.690 0.606 0.652
0.820 -0.478 0.341 0.585
-1.156 -1.307 -1.635 0.091
-0.780 1.103 0.681 0.670
0.841 -1.046 0.775 0.694
-0.860 3.511 1.254 0.814
-1.571 -0.512 -0.742 0.315
1.234 3.562 -0.383 0.404
-1.448 -0.409 0.631 0.658
1.506 -0.410 -1.250 0.188
1.371 1.924 0.502 0.625
3.063 -1.010 0.197 0.549
4.447 -0.707 0.793 0.698
5.916 2.788 0.435 0.609
3.059 0.879 0.203 0.551
2.372 -0.214 1.969 0.992
4.425 -0.868 -1.530 0.117
3.870 -1.532 0.866 0.717
1.803 -0.067 1.339 0.835
4.113 -0.139 0.205 0.551
0.479 2.262 0.033 0.508
5.176 -2.060 -0.895 0.276
3.386 -1.504 1.737 0.934
0.223 -0.135 -0.869 0.283
2.401 1.903 1.996 0.999
2.151 0.055 0.154 0.539
1.930 1.571 0.174 0.543
1.730 0.366 -1.245 0.189
2.367 -1.848 -1.066 0.234
3.072 -0.442 0.979 0.745
2.239 -2.632 -0.456 0.386
1.565 -2.382 1.923 0.981
2.588 0.012 0.009 0.502
0.445 -1.626 1.497 0.874
1.295 0.671 -0.172 0.457
2.735 -1.518 0.619 0.655
3.955 1.393 1.877 0.969
1.783 1.957 0.599 0.650
4.751 -2.354 1.437 0.859
2.046 0.896 0.875 0.719
3.180 -3.038 -1.856 0.036
4.926 0.883 1.684 0.921
5.486 -0.040 -0.264 0.434
4.732 1.233 1.490 0.873
0.835 0.800 1.614 0.903
5.564 0.762 -0.827 0.293
2.406 0.596 0.125 0.531
0.565 -1.071 -1.320 0.170
5.669 1.445 0.479 0.620
3.191 3.308 -1.428 0.143
1.886 0.278 -0.979 0.255
5.706 0.160 1.605 0.901
2.614 -0.790 -0.233 0.442
1.872 1.647 0.556 0.639
1.988 0.521 1.381 0.845
3.464 1.404 -0.067 0.483
3.157 1.948 0.299 0.575
4.253 -0.058 1.912 0.978
2.345 -1.007 0.264 0.566
2.027 -2.280 -1.804 0.049
1.621 -1.090 1.617 0.904
2.394 2.617 0.428 0.607
1.720 1.708 0.484 0.621
1.949 -2.154 0.637 0.659
4.112 -1.793 1.614 0.903
2.218 -1.026 -0.237 0.441
0.863 -1.168 -1.639 0.090
2.304 2.389 -1.297 0.176
4.260 1.379 1.886 0.971
-0.257 -0.639 1.322 0.830
2.877 2.796 -0.073 0.482
3.864 -2.330 -0.645 0.339
5.885 2.549 -1.437 0.141
5.910 -0.622 0.897 0.724
6.892 -0.493 1.218 0.805
1.236 1.981 -1.944 0.014
1.391 -0.376 0.691 0.673
2.068 -1.756 1.290 0.822
3.668 -0.263 -1.065 0.234
6.077 0.488 0.246 0.561
3.914 -0.539 -1.747 0.063
4.471 -2.940 -0.791 0.302
2.310 0.448 1.785 0.946
2.415 1.646 -1.611 0.097
3.615 -0.527 -0.185 0.454
1.815 -2.171 1.784 0.946
0.842 1.202 -1.382 0.155
2.411 0.349 -0.043 0.489
-0.092 2.014 -1.869 0.033
1.885 1.180 1.802 0.951
3.422 -0.541 0.743 0.686
-0.980 -1.142 -0.565 0.359
2.219 0.581 -1.511 0.122
3.954 -1.348 0.651 0.663
1.727 -1.572 -1.915 0.021
3.257 -1.091 -1.496 0.126
2.480 -0.223 1.061 0.765
3.278 1.009 1.479 0.870
2.598 0.746 1.602 0.901
5.965 0.053 -1.421 0.145
3.780 0.831 -1.302 0.174
2.818 -0.291 -1.941 0.015
3.275 -1.071 -0.705 0.324
3.225 0.437 0.967 0.742
0.551 -0.405 -0.095 0.476
3.315 -1.772 -1.564 0.109
-0.616 -0.087 -1.827 0.043
3.624 -2.947 0.086 0.521
-0.734 1.008 -1.757 0.061
1.493 0.200 0.744 0.686
-0.283 0.201 -1.706 0.073
4.795 0.998 -1.737 0.066
2.668 2.098 0.193 0.548
0.793 4.319 0.122 0.531
1.040 0.587 -1.603 0.099
2.124 -2.803 0.604 0.651
3.285 -2.379 -1.140 0.215
1.969 0.324 -0.644 0.339
1.510 0.448 -1.620 0.095
1.012 0.985 -0.503 0.374
4.951 2.781 -1.731 0.067
3.326 -0.578 -1.614 0.097
2.807 -2.735 0.225 0.556
1.351 -0.996 -0.681 0.330
4.008 0.973 0.661 0.665
3.005 -3.019 0.884 0.721
4.992 -0.401 -0.593 0.352
2.084 -0.488 0.627 0.657
3.116 0.709 1.381 0.845
1.287 1.881 0.296 0.574
4.019 -2.712 1.898 0.975
3.862 -1.880 0.571 0.643
6.404 0.567 1.318 0.829
2.896 0.941 0.811 0.703
2.505 1.274 -1.976 0.006
4.326 -1.415 -0.397 0.401
4.335 1.653 -1.877 0.031
2.974 -1.044 -0.321 0.420
2.220 1.213 0.886 0.722
3.326 -1.915 -1.660 0.085
3.830 0.285 0.471 0.618
2.450 -1.062 0.648 0.662
1.386 0.146 -0.907 0.273
3.023 -0.737 -0.280 0.430
2.531 2.211 -0.053 0.487
2.772 -0.397 -0.419 0.395
2.849 -0.109 -0.794 0.301
3.197 0.791 -0.978 0.256
2.912 0.165 0.988 0.747
3.660 1.310 0.815 0.704
0.160 -0.005 1.225 0.806
5.683 1.306 -1.831 0.042
6.358 0.397 1.448 0.862
1.260 -0.897 0.838 0.709
2.355 0.367 -1.917 0.021
1.779 2.405 0.473 0.618
4.661 -2.932 -1.647 0.088
3.627 -0.928 0.355 0.589
1.511 -0.226 -0.759 0.310
2.280 1.142 -1.327 0.168
2.263 -0.049 0.040 0.510
4.155 -0.775 0.910 0.727
4.157 -2.501 -1.055 0.236
3.602 0.791 0.410 0.602
3.140 -2.185 -1.291 0.177
3.251 -1.733 1.018 0.754
3.102 -1.634 1.697 0.924
1.042 -0.840 0.498 0.625
4.386 -1.587 -1.396 0.151
4.474 0.674 -0.789 0.303
2.921 0.504 0.029 0.507
2.391 1.528 -1.772 0.057
3.294 -0.522 1.457 0.864
4.273 -1.635 0.028 0.507
1.145 0.443 1.167 0.792
4.301 -0.998 1.239 0.810
2.236 -1.078 -0.097 0.476
3.313 0.435 -1.586 0.104
4.109 -0.815 0.857 0.714
2.077 -0.026 -1.009 0.248
1.508 0.615 0.091 0.523
3.786 1.217 -0.868 0.283
1.855 0.739 0.392 0.598
3.528 -2.100 -1.736 0.066
4.873 1.264 -0.863 0.284
2.640 -2.163 1.625 0.906
3.945 -0.965 0.331 0.583
3.878 1.080 1.871 0.968
2.524 -1.419 0.380 0.595
4.194 -0.490 -0.493 0.377
3.711 -2.654 0.680 0.670
4.170 -2.161 0.742 0.685
0.868 -0.357 -0.306 0.423
2.080 1.086 -1.279 0.180
3.813 3.552 -0.055 0.486
3.120 0.807 -1.691 0.077
3.387 -0.574 1.083 0.771
4.586 -2.677 -1.849 0.038
1.674 2.187 -1.476 0.131
2.362 0.624 1.325 0.831
3.361 -2.706 -1.338 0.166
1.574 0.589 0.705 0.676
3.127 1.621 -0.860 0.285
2.985 -1.637 0.136 0.534
2.004 2.540 -0.124 0.469
3.732 -1.236 1.789 0.947
4.661 -0.163 -0.873 0.282
1.646 1.241 1.865 0.966
4.100 -2.462 -1.446 0.138
3.000 2.148 1.496 0.874
2.343 -0.235 1.384 0.846
3.730 -0.989 1.052 0.763
2.535 3.223 -1.411 0.147
-0.352 1.389 -1.112 0.222
1.674 0.421 -1.893 0.027
4.673 0.582 -1.057 0.236
4.453 -0.050 -1.887 0.028
5.601 -1.208 0.600 0.650
3.210 -0.789 -0.852 0.287
4.112 -2.030 -1.445 0.139
2.549 -1.573 -1.979 0.005
4.013 0.551 1.340 0.835
0.695 -0.730 0.111 0.528
3.947 0.795 -0.795 0.301
4.495 0.463 1.176 0.794
2.299 0.194 1.621 0.905
2.776 -0.156 0.062 0.515
3.042 0.834 -0.283 0.429
2.164 -0.735 -0.334 0.417
2.675 -0.545 1.899 0.975
4.670 0.756 0.029 0.507
4.901 -0.140 -0.438 0.390
0.906 0.398 1.924 0.981
2.994 0.271 1.154 0.789
1.632 2.018 0.513 0.628
3.329 -2.423 -0.670 0.333
4.812 0.518 1.254 0.814
4.182 2.323 -0.142 0.465
2.287 -1.997 1.246 0.811
5.394 1.002 -0.169 0.458
2.879 0.432 -1.202 0.199
6.371 0.909 0.062 0.515
4.873 -0.128 -0.987 0.253
3.020 -0.977 -0.572 0.357
3.579 -2.950 -0.672 0.332
4.019 1.013 1.558 0.889
2.866 -3.179 -0.453 0.387
4.733 -0.289 -0.010 0.498
4.614 -0.831 1.205 0.801
2.913 -0.602 0.410 0.602
3.827 -1.692 -0.715 0.321
4.933 1.064 -0.774 0.306
1.737 -0.950 0.759 0.690
2.737 0.354 1.480 0.870
-0.197 4.254 -0.902 0.275
6.618 -0.456 -1.700 0.075
2.074 -1.084 1.204 0.801
-3.091 -1.348 -1.429 0.143
-3.540 0.364 -1.861 0.035
0.876 3.068 -0.535 0.366
-2.939 3.303 0.420 0.605
-3.077 -1.300 -0.512 0.372
-1.339 0.047 0.118 0.529
-3.241 3.298 -1.002 0.250
0.351 3.600 -0.004 0.499
-2.961 3.256 -0.953 0.262
-1.605 3.628 1.985 0.996
-2.241 5.259 -0.035 0.491
0.607 4.045 -0.192 0.452
-0.191 1.032 -1.649 0.088
-2.702 -0.638 -0.722 0.320
-1.816 2.450 0.169 0.542
0.772 0.152 0.847 0.712
0.418 1.058 1.175 0.794
-2.262 1.958 -1.196 0.201
0.205 4.031 -1.895 0.026
-2.857 1.521 1.215 0.804
-3.456 1.342 -1.655 0.086
-3.658 7.522 0.875 0.719
-4.035 1.587 1.293 0.823
2.095 3.796 0.569 0.642
-3.654 2.700 -0.622 0.345
0.380 0.188 0.559 0.640
0.119 5.554 -0.270 0.433
-1.071 1.731 -1.503 0.124
-0.985 2.738 -0.709 0.323
-1.849 0.662 1.764 0.941
0.792 0.221 -0.998 0.251
-2.755 0.576 -1.499 0.125
-2.104 3.751 0.010 0.503
0.249 5.118 -1.383 0.154
-2.800 -0.012 0.421 0.605
-0.439 0.386 1.301 0.825
-1.050 2.081 0.566 0.641
-3.428 0.990 1.068 0.767
-3.354 3.072 -0.008 0.498
-2.365 1.111 1.827 0.957
-4.195 2.290 0.740 0.685
-1.671 2.558 -1.760 0.060
-3.103 2.639 -1.184 0.204
-2.518 1.193 0.873 0.718
-1.795 -0.964 1.901 0.975
-0.517 3.057 0.247 0.562
-2.207 3.525 -0.930 0.267
-1.491 2.677 -0.839 0.290
-3.048 3.380 -1.007 0.248
-0.914 1.337 -0.690 0.327
-2.647 1.391 1.052 0.763
-3.304 2.020 -0.005 0.499
-1.617 2.303 1.781 0.945
-5.410 1.866 -1.139 0.215
-1.791 2.386 -0.020 0.495
0.115 0.527 -0.118 0.471
-4.330 1.336 -0.276 0.431
0.289 0.372 1.055 0.764
-2.510 3.132 0.281 0.570
-0.851 3.790 -1.706 0.074
-4.050 1.932 -0.881 0.280
0.760 1.845 -1.525 0.119
-0.017 1.766 1.180 0.795
-3.383 5.006 1.020 0.755
-0.937 3.699 0.000 0.500
-0.718 2.229 -0.668 0.333
-3.135 2.272 0.425 0.606
-2.831 1.870 0.452 0.613
0.895 5.908 0.957 0.739
-1.914 3.294 1.313 0.828
-3.808 1.525 -0.801 0.300
-0.923 0.683 0.695 0.674
0.470 1.750 1.187 0.797
-1.854 -0.262 -1.893 0.027
-5.369 2.623 1.132 0.783
-1.178 0.057 0.886 0.721
-2.294 1.540 0.516 0.629
-3.601 0.034 -1.409 0.148
-1.660 1.655 1.793 0.948
-1.274 2.187 -0.745 0.314
-0.166 3.871 -0.358 0.410
-0.973 -1.334 1.491 0.873
-1.548 1.464 -1.448 0.138
-1.148 3.283 0.649 0.662
-2.785 1.793 -1.307 0.173
-0.331 1.280 -0.583 0.354
-1.170 -0.374 0.573 0.643
-2.218 0.071 -1.231 0.192
-1.458 3.917 -1.101 0.225
-0.257 1.786 -0.844 0.289
-0.878 4.260 -0.732 0.317
-3.533 4.842 1.182 0.795
-1.612 2.756 0.706 0.677
-4.556 4.881 1.274 0.818
1.101 1.237 -0.838 0.290
-2.056 4.308 -0.615 0.346
-2.580 2.409 -0.084 0.479
-0.947 3.782 1.732 0.933
-1.770 1.231 0.463 0.616
-2.456 1.420 0.679 0.670
-3.598 1.586 -1.790 0.052
-3.539 3.236 -1.598 0.101
-1.480 1.848 0.201 0.550
-0.116 1.339 1.740 0.935
-0.266 0.818 -1.202 0.199
-0.213 1.703 0.584 0.646
-0.956 1.645 0.297 0.574
-3.846 1.473 1.747 0.937
-0.704 1.517 1.529 0.882
0.014 5.009 1.989 0.997
-2.900 3.058 1.746 0.937
1.827 1.193 1.507 0.877
0.440 2.113 -1.571 0.107
-0.279 1.869 1.956 0.989
-3.186 1.530 1.754 0.939
-0.500 0.643 -1.229 0.193
-0.821 2.581 -0.164 0.459
-1.544 2.962 0.946 0.737
-1.008 0.121 1.029 0.757
-0.167 4.636 1.588 0.897
-0.660 0.402 -1.653 0.087
-1.966 1.162 -1.438 0.141
-2.005 3.014 -0.957 0.261
-1.272 4.501 1.816 0.954
-2.270 4.276 -1.954 0.011
-2.811 0.105 -1.752 0.062
-0.554 2.869 -0.378 0.405
-4.685 1.950 0.814 0.704
-1.780 2.695 1.665 0.916
-2.078 3.989 -1.123 0.219
-0.922 2.644 0.991 0.748
-2.725 1.041 0.197 0.549
-3.332 2.340 0.656 0.664
-1.277 3.109 1.019 0.755
-1.067 1.557 -0.213 0.447
-1.673 1.420 0.257 0.564
0.249 2.715 0.022 0.505
-2.267 1.623 -0.688 0.328
-2.240 1.905 -1.178 0.205
-2.068 1.673 0.042 0.510
-0.906 0.462 0.053 0.513
-1.998 2.139 -0.150 0.462
-0.658 -0.252 -0.416 0.396
-0.493 -0.269 0.313 0.578
-0.177 2.387 -1.745 0.064
2.001 1.871 -1.724 0.069
-1.152 1.846 -0.365 0.409
-1.196 -0.538 1.913 0.978
-2.453 0.757 1.971 0.993
-3.739 4.038 1.627 0.907
-3.114 3.601 0.647 0.662
-3.618 1.466 -0.609 0.348
-0.691 3.677 0.115 0.529
-1.648 0.946 -1.986 0.003
-0.250 2.180 0.694 0.673
-3.277 1.491 1.293 0.823
-1.478 3.383 -0.897 0.276
0.726 1.076 -1.549 0.113
-0.929 0.544 1.064 0.766
-1.302 1.822 -1.176 0.206
-1.184 2.232 0.391 0.598
-1.637 1.546 0.962 0.741
-2.396 2.632 -1.131 0.217
-1.165 1.614 0.016 0.504
-2.174 4.676 0.926 0.732
-2.349 3.838 0.690 0.673
-2.046 3.148 -1.427 0.143
-2.067 1.104 -0.798 0.301
1.889 3.365 1.519 0.880
0.287 0.890 -0.291 0.427
-5.516 2.111 1.766 0.942
-2.749 -0.318 -0.725 0.319
-2.238 2.428 -0.494 0.376
-1.453 0.302 1.397 0.849
-2.237 4.234 1.223 0.806
0.158 1.016 1.871 0.968
-2.253 1.716 -1.029 0.243
-0.875 4.071 1.689 0.922
-1.121 1.459 0.898 0.725
-1.067 3.104 0.695 0.674
-3.935 0.162 -1.247 0.188
-1.323 -0.401 0.235 0.559
-4.502 2.391 -0.668 0.333
-1.246 1.930 1.749 0.937
-0.772 1.823 1.998 1.000
-2.608 2.148 0.418 0.604
-0.561 5.196 0.208 0.552
-1.266 0.551 0.135 0.534
-2.240 2.903 0.051 0.513
-2.183 2.012 1.925 0.981
-4.318 2.547 1.657 0.914
-2.566 3.126 0.250 0.563
-1.349 2.829 -0.957 0.261
0.310 1.213 -0.330 0.418
-0.728 3.098 -0.481 0.380
-0.618 0.472 0.618 0.655
-1.961 0.939 1.286 0.822
0.602 1.551 -0.038 0.491
-0.188 4.326 -1.323 0.169
-1.822 0.294 1.668 0.917
-3.575 1.438 -1.765 0.059
1.340 2.613 1.781 0.945
-2.754 -0.221 -0.350 0.412
-0.902 1.091 0.829 0.707
0.278 2.102 -0.507 0.373
-3.142 0.500 0.466 0.617
-3.226 2.183 -1.974 0.007
-1.720 1.926 0.118 0.529
-2.140 6.082 -1.931 0.017
-0.632 -0.071 1.225 0.806
-0.898 1.617 -1.615 0.096
-0.919 2.788 0.106 0.526
-1.029 0.915 -0.412 0.397
-2.569 3.096 0.260 0.565
-0.429 1.934 0.736 0.684
-0.240 0.216 1.433 0.858
-1.460 1.337 -0.483 0.379
-1.982 1.834 -1.962 0.009
-0.663 3.555 -0.264 0.434
-1.085 0.107 1.432 0.858
0.018 3.037 -1.830 0.043
-0.775 4.931 1.550 0.888
-1.958 2.071 -1.703 0.074
1.369 0.551 0.254 0.564
1.874 2.708 -0.742 0.314
0.437 1.522 1.009 0.752
-1.851 0.529 -1.692 0.077
-0.918 2.948 1.339 0.835
-3.951 4.050 -0.673 0.332
-1.471 1.177 1.954 0.988
-1.786 0.255 1.897 0.974
0.017 2.532 1.355 0.839
-2.884 4.163 1.819 0.955
-3.560 3.563 -1.881 0.030
-2.186 6.647 -0.038 0.491
-3.703 4.810 -0.273 0.432
-2.443 0.006 -1.657 0.086
-3.472 0.180 0.852 0.713
-0.745 2.428 0.847 0.712
-3.140 0.165 -0.733 0.317
-1.380 2.095 -0.767 0.308
-2.258 2.917 -1.470 0.133
-0.872 3.512 0.219 0.555
-1.790 2.189 -0.584 0.354
0.189 3.118 -0.702 0.324
-2.436 2.823 -0.449 0.388
1.281 3.637 1.621 0.905
0.436 1.733 -1.322 0.170
-2.100 2.559 -0.795 0.301
-2.042 2.023 -0.261 0.435
-0.018 -1.179 -0.692 0.327
1.488 -0.871 1.500 0.875
0.677 -2.550 -0.572 0.357
0.269 1.444 0.329 0.582
-0.472 -3.856 0.318 0.580
0.100 0.376 2.438 1.110
2.301 -2.131 0.283 0.571
2.450 -2.327 0.257 0.564
5.351 -2.872 0.166 0.541
0.909 -3.640 1.304 0.826
1.569 -0.545 2.266 1.066
0.923 -1.540 1.255 0.814
-0.077 -3.032 1.727 0.932
-2.027 -3.148 0.846 0.712
1.083 -3.557 0.165 0.541
0.525 -4.596 2.183 1.046
0.015 -1.047 1.533 0.883
1.610 0.197 1.861 0.965
1.643 -2.570 2.963 1.241
-0.005 -1.802 1.026 0.757
3.519 -3.104 1.175 0.794
1.858 -3.370 2.582 1.146
-0.582 -2.492 -0.660 0.335
1.761 -4.181 0.420 0.605
1.228 -2.360 2.934 1.234
0.833 -3.361 2.011 1.003
3.055 -2.340 -0.958 0.261
1.402 -0.209 1.075 0.769
-0.217 -2.951 0.783 0.696
-0.500 -0.369 1.354 0.839
0.120 -2.004 -0.902 0.275
2.732 -1.050 2.847 1.212
4.158 0.376 -0.433 0.392
0.873 -0.470 -0.173 0.457
-0.196 -1.817 0.753 0.688
1.068 -3.242 0.201 0.550
1.774 -2.689 2.397 1.099
0.151 -3.808 -0.343 0.414
2.616 -2.113 -0.302 0.424
2.528 -0.377 2.834 1.208
1.674 -0.481 -0.262 0.434
0.487 -3.233 -0.883 0.279
0.750 -2.654 1.369 0.842
-0.294 -0.493 -0.177 0.456
1.540 -4.728 -0.750 0.313
3.941 -0.185 -0.252 0.437
0.738 -0.526 0.049 0.512
2.694 -3.396 1.556 0.889
-0.191 -3.180 1.348 0.837
-0.173 0.367 1.469 0.867
2.415 -4.161 0.190 0.547
1.025 -2.416 -0.464 0.384
2.445 -1.136 -0.268 0.433
0.876 -3.682 0.673 0.668
2.456 -0.876 -0.257 0.436
-0.020 -3.735 1.581 0.895
3.409 -2.001 0.959 0.740
2.329 -0.994 0.804 0.701
2.835 -1.532 -0.962 0.260
3.303 0.085 2.855 1.214
-0.252 -2.060 1.739 0.935
-0.977 -0.548 0.955 0.739
1.826 -1.814 2.044 1.011
1.186 -0.839 1.150 0.788
2.315 -0.556 1.970 0.993
1.689 -3.885 -0.547 0.363
3.452 -0.296 2.293 1.073
-0.369 0.071 -0.834 0.292
1.135 -3.850 2.959 1.240
3.759 -0.306 2.005 1.001
-0.190 3.469 0.799 0.700
-0.104 0.250 0.756 0.689
4.091 -2.098 -0.052 0.487
2.243 -3.854 0.403 0.601
0.982 -4.059 -0.336 0.416
2.154 -1.217 -0.172 0.457
2.798 -1.492 0.124 0.531
0.213 -2.320 1.816 0.954
1.211 -0.853 2.432 1.108
3.753 -2.206 -0.619 0.345
4.061 -2.610 2.675 1.169
4.510 -2.142 -0.492 0.377
2.258 -2.848 1.846 0.961
2.702 -4.237 1.705 0.926
-0.465 -1.870 0.075 0.519
0.088 -1.156 1.535 0.884
1.984 -2.454 1.062 0.766
0.879 1.465 0.476 0.619
2.771 -2.411 -0.990 0.252
1.868 -4.409 1.924 0.981
-0.641 -1.428 0.433 0.608
3.210 -1.281 -0.129 0.468
0.564 -1.557 0.074 0.519
2.144 -3.200 1.312 0.828
-0.082 -2.698 0.375 0.594
1.306 -2.431 -0.602 0.350
1.852 -3.627 -0.503 0.374
2.513 -3.262 -0.997 0.251
2.474 -2.263 1.754 0.939
2.969 -0.398 -0.364 0.409
2.595 -2.492 1.618 0.905
1.496 -0.554 2.615 1.154
2.263 -0.700 0.222 0.556
1.158 -3.041 1.622 0.905
1.480 -2.067 0.907 0.727
2.222 -1.205 1.720 0.930
3.810 -1.865 2.268 1.067
3.067 -2.117 -0.471 0.382
2.831 -1.365 1.923 0.981
2.540 -1.220 2.524 1.131
3.183 -0.038 2.013 1.003
4.663 1.505 -0.429 0.393
1.308 -2.037 1.600 0.900
-0.733 -1.117 1.512 0.878
2.397 -0.742 1.746 0.937
1.907 -2.492 -0.598 0.350
1.531 -4.002 0.536 0.634
2.769 -2.298 -0.441 0.390
1.394 -1.380 1.214 0.803
-0.160 -3.206 2.116 1.029
0.436 -4.710 1.634 0.908
0.922 -0.283 1.038 0.760
1.483 -3.255 -0.782 0.305
4.490 -4.233 0.980 0.745
2.840 -0.852 1.376 0.844
-2.572 -2.731 2.948 1.237
2.230 -2.322 2.443 1.111
0.199 -2.596 1.732 0.933
1.798 -5.716 2.081 1.020
2.058 -1.941 0.049 0.512
2.013 -1.869 2.157 1.039
-0.609 -2.088 1.004 0.751
-0.512 -0.818 -0.670 0.332
-0.521 -2.473 0.110 0.527
0.840 -0.331 -0.187 0.453
2.164 -3.738 0.563 0.641
-0.391 -4.126 1.724 0.931
3.626 -1.062 1.920 0.980
1.795 -2.426 -0.655 0.336
-0.011 -1.340 1.435 0.859
0.602 0.299 1.963 0.991
3.221 -0.395 1.806 0.951
3.412 1.179 1.092 0.773
1.993 -4.345 -0.332 0.417
3.326 -0.129 0.075 0.519
3.448 -3.687 -0.883 0.279
1.920 -3.119 -0.745 0.314
1.039 -3.912 -0.692 0.327
0.138 -1.606 0.998 0.750
0.189 -2.586 0.020 0.505
3.064 -0.820 1.891 0.973
1.742 -0.228 -0.824 0.294
2.232 -2.852 0.887 0.722
0.866 -1.426 2.725 1.181
2.690 -3.485 2.656 1.164
1.408 -3.561 0.287 0.572
-0.570 -0.797 0.085 0.521
2.779 -1.319 1.008 0.752
2.270 -2.545 2.217 1.054
5.198 -2.434 -0.724 0.319
0.308 -1.734 2.379 1.095
0.611 -0.316 -0.968 0.258
2.089 -0.160 0.216 0.554
0.299 -3.167 1.367 0.842
-1.079 -1.892 -0.218 0.445
3.556 -3.485 -0.019 0.495
3.040 -1.938 -0.068 0.483
-0.134 0.359 2.509 1.127
1.577 -2.025 1.629 0.907
2.909 -3.965 -0.584 0.354
0.413 -2.206 0.968 0.742
6.250 -0.123 1.847 0.962
4.321 -0.134 2.589 1.147
-0.812 -2.289 0.490 0.622
2.124 -2.101 -0.618 0.346
3.356 0.066 -0.701 0.325
0.041 -2.663 2.857 1.214
1.597 -0.837 0.260 0.565
2.231 -4.212 1.941 0.985
1.004 -0.913 -0.701 0.325
2.264 0.496 1.339 0.835
2.003 -1.255 0.864 0.716
-0.047 -0.970 2.859 1.215
1.839 -0.757 0.060 0.515
2.141 -1.399 1.744 0.936
2.570 -4.056 -0.839 0.290
2.187 -3.147 -0.635 0.341
1.516 -0.594 1.054 0.763
0.986 -3.045 2.963 1.241
2.998 -1.704 0.809 0.702
1.486 -3.137 0.848 0.712
1.773 -2.776 -0.952 0.262
3.565 -5.736 -0.477 0.381
2.146 -3.295 1.521 0.880
0.282 -3.564 0.035 0.509
1.621 -2.291 -0.742 0.314
2.829 -2.934 -0.485 0.379
3.834 -3.584 0.326 0.582
3.108 -1.558 -0.328 0.418
-0.991 -3.247 0.580 0.645
3.735 -1.581 -0.309 0.423
1.712 -1.058 0.119 0.530
1.796 -2.266 1.477 0.869
1.533 -0.746 0.648 0.662
0.995 -2.167 0.119 0.530
2.151 -1.240 2.539 1.135
-0.590 -2.342 2.209 1.052
2.758 -6.345 2.128 1.032
0.309 -0.544 0.939 0.735
3.012 -2.924 0.554 0.638
2.061 -0.811 -0.124 0.469
3.566 -3.586 -0.766 0.309
3.339 -2.098 2.067 1.017
5.552 -2.010 -0.599 0.350
0.848 -2.985 2.265 1.066
1.942 -2.253 2.986 1.246
2.055 0.851 2.190 1.047
-0.255 0.268 2.381 1.095
2.400 -0.203 2.225 1.056
0.426 -5.144 -0.887 0.278
0.387 -5.468 1.254 0.814
0.606 -2.374 2.952 1.238
2.785 -3.182 0.236 0.559
0.849 -1.961 -0.070 0.483
1.857 -0.201 -0.997 0.251
2.375 -2.496 -0.478 0.380
0.807 -5.289 2.377 1.094
1.359 -1.717 1.346 0.837
3.746 -3.286 2.386 1.096
3.944 -4.929 0.494 0.624
2.906 -2.537 -0.596 0.351
1.240 -1.230 -0.370 0.408
4.021 -2.842 2.843 1.211
0.951 -2.748 2.875 1.219
0.303 -5.234 2.148 1.037
1.835 -0.028 -0.299 0.425
0.699 0.147 -0.491 0.377
1.015 -5.625 2.795 1.199
-2.245 1.035 2.861 1.215
3.495 -1.588 2.684 1.171
2.538 -2.215 1.262 0.816
2.261 -2.320 1.981 0.995
1.821 2.251 -0.328 0.418
1.986 -2.427 1.836 0.959
-0.509 -4.401 0.787 0.697
1.392 -0.869 -0.729 0.318
1.470 -1.283 -0.995 0.251
-0.337 -0.400 2.876 1.219
2.808 -3.160 0.515 0.629
0.835 -2.198 0.918 0.729
